-500.0 -500.0 150.0 255 0 0
-400.0 -500.0 150.0 255 0 0
-300.0 -500.0 150.0 255 0 0
-200.0 -500.0 150.0 255 0 0
-100.0 -500.0 150.0 255 0 0
0.0 -500.0 150.0 255 0 0
100.0 -500.0 150.0 255 0 0
200.0 -500.0 150.0 255 0 0
300.0 -500.0 150.0 255 0 0
400.0 -500.0 150.0 255 0 0
500.0 -500.0 150.0 255 0 0
-500.0 -400.0 150.0 255 0 0
-400.0 -400.0 150.0 255 0 0
-300.0 -400.0 150.0 255 0 0
-200.0 -400.0 150.0 255 0 0
-100.0 -400.0 150.0 255 0 0
0.0 -400.0 78.19873 0 255 0
100.0 -400.0 78.19873 0 255 0
100.0 -400.0 78.19873 0 255 0
200.0 -400.0 78.19873 0 255 0
200.0 -400.0 78.19873 0 255 0
300.0 -400.0 150.0 255 0 0
400.0 -400.0 150.0 255 0 0
500.0 -400.0 150.0 255 0 0
-500.0 -300.0 150.0 255 0 0
-400.0 -300.0 150.0 255 0 0
-300.0 -300.0 150.0 255 0 0
-200.0 -300.0 150.0 255 0 0
-100.0 -300.0 78.19873 0 255 0
0.0 -300.0 78.19873 0 255 0
0.0 -300.0 78.19873 0 255 0
100.0 -300.0 78.19873 0 255 0
100.0 -300.0 78.19873 0 255 0
200.0 -300.0 78.19873 0 255 0
200.0 -300.0 78.19873 0 255 0
300.0 -300.0 78.199463 0 255 0
400.0 -300.0 78.198853 0 255 0
500.0 -300.0 150.0 255 0 0
-500.0 -200.0 150.0 255 0 0
-400.0 -200.0 150.0 255 0 0
-300.0 -200.0 150.0 255 0 0
-200.0 -200.0 150.0 255 0 0
-100.0 -200.0 78.19873 0 255 0
0.0 -200.0 78.19873 0 255 0
0.0 -200.0 78.19873 0 255 0
100.0 -200.0 78.19873 0 255 0
100.0 -200.0 78.19873 0 255 0
200.0 -200.0 78.19873 0 255 0
200.0 -200.0 78.199585 0 255 0
300.0 -200.0 78.19873 0 255 0
400.0 -200.0 78.19873 0 255 0
500.0 -200.0 150.0 255 0 0
-500.0 -100.0 150.0 255 0 0
-400.0 -100.0 150.0 255 0 0
-300.0 -100.0 150.0 255 0 0
-200.0 -100.0 150.0 255 0 0
-100.0 -100.0 78.19873 0 255 0
0.0 -100.0 78.19873 0 255 0
100.0 -100.0 78.19873 0 255 0
200.0 -100.0 78.19873 0 255 0
200.0 -100.0 78.19873 0 255 0
300.0 -100.0 78.19873 0 255 0
400.0 -100.0 78.19873 0 255 0
500.0 -100.0 150.0 255 0 0
-500.0 0.0 150.0 255 0 0
-400.0 0.0 150.0 255 0 0
-300.0 0.0 150.0 255 0 0
-200.0 0.0 150.0 255 0 0
-100.0 0.0 78.19873 0 255 0
0.0 0.0 78.19873 0 255 0
100.0 0.0 78.19873 0 255 0
200.0 0.0 78.19873 0 255 0
300.0 0.0 150.0 255 0 0
400.0 0.0 150.0 255 0 0
500.0 0.0 150.0 255 0 0
-500.0 100.0 150.0 255 0 0
-400.0 100.0 150.0 255 0 0
-300.0 100.0 150.0 255 0 0
-200.0 100.0 150.0 255 0 0
-100.0 100.0 78.19873 0 255 0
100.0 100.0 78.19873 0 255 0
200.0 100.0 78.19873 0 255 0
300.0 100.0 150.0 255 0 0
400.0 100.0 150.0 255 0 0
500.0 100.0 150.0 255 0 0
-500.0 200.0 150.0 255 0 0
-400.0 200.0 150.0 255 0 0
-300.0 200.0 150.0 255 0 0
-200.0 200.0 150.0 255 0 0
-100.0 200.0 78.19873 0 255 0
0.0 200.0 78.19873 0 255 0
100.0 200.0 78.19873 0 255 0
200.0 200.0 150.0 255 0 0
300.0 200.0 150.0 255 0 0
400.0 200.0 150.0 255 0 0
500.0 200.0 150.0 255 0 0
-500.0 300.0 150.0 255 0 0
-400.0 300.0 150.0 255 0 0
-300.0 300.0 150.0 255 0 0
-200.0 300.0 150.0 255 0 0
-100.0 300.0 78.19873 0 255 0
0.0 300.0 78.19873 0 255 0
100.0 300.0 78.19873 0 255 0
200.0 300.0 150.0 255 0 0
300.0 300.0 150.0 255 0 0
400.0 300.0 150.0 255 0 0
500.0 300.0 150.0 255 0 0
-500.0 400.0 150.0 255 0 0
-400.0 400.0 150.0 255 0 0
-300.0 400.0 150.0 255 0 0
-200.0 400.0 150.0 255 0 0
-100.0 400.0 150.0 255 0 0
0.0 400.0 150.0 255 0 0
100.0 400.0 150.0 255 0 0
200.0 400.0 150.0 255 0 0
300.0 400.0 150.0 255 0 0
400.0 400.0 150.0 255 0 0
500.0 400.0 150.0 255 0 0
-500.0 500.0 150.0 255 0 0
-400.0 500.0 150.0 255 0 0
-300.0 500.0 150.0 255 0 0
-200.0 500.0 150.0 255 0 0
-100.0 500.0 150.0 255 0 0
0.0 500.0 150.0 255 0 0
100.0 500.0 150.0 255 0 0
200.0 500.0 150.0 255 0 0
300.0 500.0 150.0 255 0 0
400.0 500.0 150.0 255 0 0
500.0 500.0 150.0 255 0 0
