-500.0 -500.0 100.0 255 0 0
-400.0 -500.0 100.0 255 0 0
-300.0 -500.0 100.0 255 0 0
-200.0 -500.0 100.0 255 0 0
-100.0 -500.0 100.0 255 0 0
0.0 -500.0 100.0 255 0 0
100.0 -500.0 100.0 255 0 0
200.0 -500.0 100.0 255 0 0
300.0 -500.0 100.0 255 0 0
400.0 -500.0 100.0 255 0 0
500.0 -500.0 100.0 255 0 0
-500.0 -400.0 100.0 255 0 0
-400.0 -400.0 100.0 255 0 0
-300.0 -400.0 100.0 255 0 0
-200.0 -400.0 100.0 255 0 0
-100.0 -400.0 31.453735 0 255 0
0.0 -400.0 31.453735 0 255 0
100.0 -400.0 31.453857 0 255 0
200.0 -400.0 31.453735 0 255 0
300.0 -400.0 31.078979 0 255 0
400.0 -400.0 31.078979 0 255 0
500.0 -400.0 100.0 255 0 0
-500.0 -300.0 100.0 255 0 0
-400.0 -300.0 100.0 255 0 0
-300.0 -300.0 100.0 255 0 0
-200.0 -300.0 100.0 255 0 0
-100.0 -300.0 32.027466 0 255 0
0.0 -300.0 32.027588 0 255 0
100.0 -300.0 32.027466 0 255 0
200.0 -300.0 32.027588 0 255 0
300.0 -300.0 32.027344 0 255 0
400.0 -300.0 31.078979 0 255 0
500.0 -300.0 100.0 255 0 0
-500.0 -200.0 100.0 255 0 0
-400.0 -200.0 100.0 255 0 0
-300.0 -200.0 100.0 255 0 0
-200.0 -200.0 100.0 255 0 0
-100.0 -200.0 49.12854 0 255 0
0.0 -200.0 49.128662 0 255 0
100.0 -200.0 49.12854 0 255 0
200.0 -200.0 48.163574 0 255 0
300.0 -200.0 48.44397 0 255 0
400.0 -200.0 48.44397 0 255 0
500.0 -200.0 100.0 255 0 0
-500.0 -100.0 100.0 255 0 0
-400.0 -100.0 100.0 255 0 0
-300.0 -100.0 100.0 255 0 0
-200.0 -100.0 100.0 255 0 0
-100.0 -100.0 66.229736 0 255 0
0.0 -100.0 66.229736 0 255 0
100.0 -100.0 66.229736 0 255 0
200.0 -100.0 66.229736 0 255 0
300.0 -100.0 100.0 255 0 0
400.0 -100.0 100.0 255 0 0
500.0 -100.0 100.0 255 0 0
-500.0 0.0 100.0 255 0 0
-400.0 0.0 100.0 255 0 0
-300.0 0.0 100.0 255 0 0
-200.0 0.0 100.0 255 0 0
-100.0 0.0 83.330811 0 255 0
0.0 0.0 83.330811 0 255 0
100.0 0.0 83.330811 0 255 0
200.0 0.0 83.330811 0 255 0
300.0 0.0 100.0 255 0 0
400.0 0.0 100.0 255 0 0
500.0 0.0 100.0 255 0 0
-500.0 100.0 100.0 255 0 0
-400.0 100.0 100.0 255 0 0
-300.0 100.0 100.0 255 0 0
-200.0 100.0 100.0 255 0 0
-100.0 100.0 100.431885 0 255 0
0.0 100.0 100.431885 0 255 0
100.0 100.0 100.431885 0 255 0
200.0 100.0 100.431885 0 255 0
300.0 100.0 100.0 255 0 0
400.0 100.0 100.0 255 0 0
500.0 100.0 100.0 255 0 0
-500.0 200.0 100.0 255 0 0
-400.0 200.0 100.0 255 0 0
-300.0 200.0 100.0 255 0 0
-200.0 200.0 100.0 255 0 0
-100.0 200.0 100.0 255 0 0
0.0 200.0 117.532959 0 255 0
100.0 200.0 117.532959 0 255 0
200.0 200.0 100.0 255 0 0
300.0 200.0 100.0 255 0 0
400.0 200.0 100.0 255 0 0
500.0 200.0 100.0 255 0 0
-500.0 300.0 100.0 255 0 0
-400.0 300.0 100.0 255 0 0
-300.0 300.0 100.0 255 0 0
-200.0 300.0 100.0 255 0 0
-100.0 300.0 100.0 255 0 0
0.0 300.0 100.0 255 0 0
100.0 300.0 100.0 255 0 0
200.0 300.0 100.0 255 0 0
300.0 300.0 100.0 255 0 0
400.0 300.0 100.0 255 0 0
500.0 300.0 100.0 255 0 0
-500.0 400.0 100.0 255 0 0
-400.0 400.0 100.0 255 0 0
-300.0 400.0 100.0 255 0 0
-200.0 400.0 100.0 255 0 0
-100.0 400.0 100.0 255 0 0
0.0 400.0 100.0 255 0 0
100.0 400.0 100.0 255 0 0
200.0 400.0 100.0 255 0 0
300.0 400.0 100.0 255 0 0
400.0 400.0 100.0 255 0 0
500.0 400.0 100.0 255 0 0
-500.0 500.0 100.0 255 0 0
